ply
format ascii 1.0
comment Created by CloudCompare v2.11.1 (Anoia)
comment Created 25. 6. 9. 오후 10:54
obj_info Generated by CloudCompare!
element vertex 1664
property float x
property float y
property float z
property float scalar_intensity
end_header
-434.936 -50.6958 20.0973 0 
-434.615 -50.799 20.3026 0 
-435.084 -50.7108 20.1287 0 
-434.901 -50.7276 20.3211 0 
-434.869 -50.6239 20.53 0 
-435.435 -50.4235 20.52 0 
-434.7 -50.6601 20.779 0 
-434.603 -50.7438 20.7324 0 
-434.803 -50.8143 20.1053 0 
-434.736 -50.6584 20.9488 0 
-434.735 -50.707 20.5077 0 
-434.889 -50.727 20.298 0 
-434.927 -50.7403 20.1034 0 
-435.042 -50.6388 20.9581 0 
-435.012 -50.599 20.736 0 
-435.048 -50.7008 20.5205 0 
-435.527 -50.4673 20.2913 0 
-434.946 -50.6298 20.5158 0 
-435.131 -50.6291 20.0805 0 
-435.379 -50.5065 20.289 0 
-434.643 -50.7871 20.3035 0 
-435.118 -50.4815 20.7302 0 
-434.637 -50.7362 20.5339 0 
-435.427 -50.4214 20.5409 0 
-435.325 -50.5156 20.1187 0 
-435.568 -50.4555 20.5425 0 
-435.217 -50.6428 20.1277 0 
-435.159 -50.5482 20.5421 0 
-435.046 -50.6617 20.5482 0 
-435.294 -50.4855 20.5416 0 
-435.206 -50.5273 20.5462 0 
-435.475 -50.4074 20.5457 0 
-435.407 -50.4352 20.5418 0 
-435.314 -50.5554 20.1196 0 
-435.069 -50.751 20.3311 0 
-435.287 -50.5522 20.3264 0 
-435.251 -50.3508 20.9714 0 
-434.877 -50.6224 20.759 0 
-434.919 -50.6947 20.1189 0 
-434.786 -50.6919 20.5358 0 
-435.41 -50.4156 20.5476 0 
-435.417 -50.4151 20.7857 0 
-435.079 -50.5636 20.78 0 
-435.281 -50.6288 20.1018 0 
-435.076 -50.5187 21.0117 0 
-435.416 -50.5432 20.0984 0 
-435.356 -50.4336 20.5344 0 
-435.578 -50.5107 20.3076 0 
-435.586 -50.4555 20.5442 0 
-434.9 -50.5235 20.77 0 
-434.772 -50.6315 20.7744 0 
-434.713 -50.7366 20.2866 0 
-435.02 -50.6756 20.2936 0 
-434.692 -50.6358 20.7663 0 
-435.582 -50.4776 20.3265 0 
-435.418 -50.4692 20.5145 0 
-435.161 -50.4984 20.9938 0 
-435.336 -50.5617 20.1246 0 
-435.185 -50.6205 20.1215 0 
-434.75 -50.7808 20.1063 0 
-435.258 -50.4827 20.5324 0 
-435.297 -50.5304 20.1049 0 
-434.681 -50.8204 20.3307 0 
-434.638 -50.8105 20.7773 0 
-435.161 -50.5961 20.1057 0 
-435.136 -50.5297 20.9947 0 
-435.103 -50.4781 20.7621 0 
-434.862 -50.7115 20.3201 0 
-434.693 -50.6598 20.5338 0 
-434.847 -50.5969 20.7563 0 
-434.691 -50.6644 20.7622 0 
-434.792 -50.6558 20.5122 0 
-435.465 -50.4623 20.3059 0 
-435.453 -50.5208 20.1113 0 
-435.007 -50.6393 20.5447 0 
-434.736 -50.8728 20.0971 0 
-434.654 -50.6882 20.7018 0 
-434.768 -50.9033 20.1073 0 
-434.592 -50.8755 20.7153 0 
-434.799 -50.6639 20.9257 0 
-434.674 -50.8082 20.2816 0 
-434.916 -50.6087 20.7111 0 
-434.983 -50.7341 20.0944 0 
-434.93 -50.5892 20.9153 0 
-434.918 -50.5934 20.7042 0 
-434.737 -50.6948 20.9331 0 
-434.798 -50.6847 20.4882 0 
-434.911 -50.6497 20.92 0 
-434.887 -50.6481 20.4932 0 
-434.647 -50.7854 20.4955 0 
-434.765 -50.7405 20.2872 0 
-434.763 -50.6618 20.9158 0 
-435.583 -50.4723 20.5004 0 
-435.299 -50.5622 20.2806 0 
-435.204 -50.6269 20.0869 0 
-435.159 -50.9082 19.8972 0 
-435.388 -50.5263 20.1335 0 
-435.229 -50.5707 20.3163 0 
-434.749 -50.7012 20.4863 0 
-434.766 -50.7673 20.2768 0 
-434.744 -50.6704 20.7084 0 
-435.43 -50.5347 20.1094 0 
-435.398 -50.5333 20.3003 0 
-435.328 -50.4884 20.7169 0 
-434.853 -50.6417 20.7204 0 
-435.237 -50.6004 20.098 0 
-434.84 -50.6609 20.6919 0 
-435.001 -50.6263 20.7249 0 
-434.846 -50.6468 20.4995 0 
-434.736 -50.6843 20.7025 0 
-434.756 -50.6951 20.9114 0 
-435.137 -50.56 20.2864 0 
-435.155 -50.5685 20.4973 0 
-434.596 -50.7703 20.6913 0 
-434.749 -50.8179 20.2916 0 
-434.782 -50.823 20.1112 0 
-434.734 -50.7374 20.5031 0 
-435.223 -50.9524 19.9145 0 
-435.307 -50.4385 20.7063 0 
-434.988 -50.7218 20.0986 0 
-435.275 -50.5609 20.4989 0 
-435.541 -50.4183 20.4998 0 
-435.163 -50.5647 20.7139 0 
-435.073 -50.696 20.7217 0 
-435.213 -50.6156 20.2894 0 
-435.401 -50.5358 20.2954 0 
-435.163 -50.6239 20.1059 0 
-435.282 -50.6344 20.1171 0 
-435.15 -50.6634 20.302 0 
-435.142 -50.6375 20.133 0 
-435.1 -50.5407 20.9314 0 
-434.608 -50.8108 20.486 0 
-435.146 -50.635 20.2935 0 
-434.89 -50.7387 20.131 0 
-435.119 -50.8258 20.1253 0 
-435.279 -50.5082 20.497 0 
-434.857 -50.7395 20.2908 0 
-434.734 -50.7877 20.2896 0 
-434.732 -50.7593 20.4868 0 
-434.975 -50.6182 20.9349 0 
-435.123 -50.9425 19.9693 0 
-434.973 -50.6598 20.5244 0 
-434.994 -50.7259 20.3285 0 
-434.838 -50.6522 20.7254 0 
-434.713 -50.7048 20.7249 0 
-434.732 -50.7865 20.3143 0 
-435.058 -50.7166 20.7179 0 
-434.983 -50.6608 20.7357 0 
-435.24 -50.5927 20.5298 0 
-435.108 -50.6103 20.7363 0 
-434.827 -50.8149 20.1027 0 
-435.106 -50.8669 20.1366 0 
-435.132 -50.941 19.9448 0 
-435.005 -50.7353 20.2976 0 
-434.726 -50.7294 20.6913 0 
-434.612 -50.7952 20.6923 0 
-435.109 -50.6304 20.5275 0 
-434.985 -50.6696 20.4898 0 
-435.356 -50.5256 20.4665 0 
-435.149 -50.6669 20.1137 0 
-434.591 -50.7981 20.6375 0 
-434.609 -50.8446 20.4425 0 
-435.132 -50.6934 20.2994 0 
-434.715 -50.8369 20.2919 0 
-435.491 -50.5091 20.4709 0 
-434.751 -50.7381 20.6802 0 
-435.138 -50.6474 20.4834 0 
-434.714 -50.7739 20.4406 0 
-434.734 -50.8316 20.2547 0 
-434.855 -50.69 20.693 0 
-434.805 -50.8053 20.1053 0 
-434.767 -50.7881 20.2745 0 
-435.281 -50.6231 20.1108 0 
-435.237 -50.5958 20.2779 0 
-435.13 -50.85 20.4926 0 
-434.883 -50.6598 20.6672 0 
-434.946 -50.7636 20.1034 0 
-435.352 -50.5728 20.4565 0 
-434.947 -50.7432 20.4555 0 
-435.448 -50.5491 20.2611 0 
-435.333 -50.6017 20.2608 0 
-435.334 -50.5782 20.45 0 
-435.498 -50.4559 20.4715 0 
-435.466 -50.5521 20.2777 0 
-435.459 -50.5179 20.4564 0 
-435.428 -50.4511 20.6383 0 
-435.525 -50.497 20.2967 0 
-435.241 -50.6473 20.0873 0 
-435.484 -50.5032 20.8435 0 
-435.395 -50.4537 20.8103 0 
-434.974 -50.7377 20.257 0 
-435.18 -50.6363 20.4559 0 
-435.518 -50.4582 20.4542 0 
-435.407 -50.5464 20.2644 0 
-434.725 -50.8692 20.2632 0 
-435.398 -50.5677 20.2828 0 
-435.388 -50.5322 20.4594 0 
-435.497 -50.5067 20.4475 0 
-435.502 -50.5371 20.272 0 
-435.287 -50.6749 20.1191 0 
-435.35 -50.5865 20.2815 0 
-435.392 -50.6113 20.1177 0 
-435.593 -50.4754 20.6277 0 
-435.132 -50.8854 20.1339 0 
-435.347 -50.5289 20.6215 0 
-435.376 -50.5858 20.444 0 
-435.193 -50.6607 20.111 0 
-435.144 -50.6258 20.2723 0 
-435.123 -50.8964 19.9457 0 
-435.357 -50.6059 20.2876 0 
-435.545 -50.4506 20.4579 0 
-435.559 -50.4926 20.2872 0 
-435.357 -50.6341 20.1125 0 
-435.45 -50.4781 20.8134 0 
-435.212 -50.867 19.946 0 
-435.146 -50.6798 20.1083 0 
-434.814 -50.7616 20.2891 0 
-435.577 -50.4675 20.4429 0 
-434.855 -50.8097 20.1011 0 
-435.232 -50.6322 20.2738 0 
-435.5 -50.5059 20.2778 0 
-435.206 -50.5723 20.6461 0 
-435.16 -50.7249 19.9666 0 
-435.143 -50.6953 20.4731 0 
-435.471 -50.5469 20.1442 0 
-435.42 -50.4542 20.8194 0 
-435.438 -50.516 20.471 0 
-435.326 -50.5781 20.2971 0 
-435.113 -50.8014 20.2777 0 
-434.926 -50.7195 20.4395 0 
-435.397 -50.5915 20.2719 0 
-435.388 -50.5562 20.4469 0 
-434.781 -50.7464 20.615 0 
-434.683 -50.8505 20.2551 0 
-435.184 -50.5916 20.6324 0 
-435.16 -50.7069 20.2672 0 
-435.143 -50.846 20.1201 0 
-435.17 -50.7991 20.463 0 
-434.679 -50.8233 20.4314 0 
-435.094 -50.5543 20.7908 0 
-435.113 -50.6038 20.6176 0 
-435.151 -50.8345 20.4613 0 
-435.137 -50.7971 20.642 0 
-435.448 -50.5177 20.464 0 
-435.357 -50.6065 20.2955 0 
-434.909 -50.8231 20.107 0 
-435.452 -50.5403 20.2861 0 
-435.175 -50.8648 20.1681 0 
-435.247 -50.6489 20.2936 0 
-435.212 -50.5824 20.4584 0 
-435.209 -50.5407 20.8071 0 
-435.187 -50.6994 20.1515 0 
-435.162 -50.8686 19.994 0 
-435.395 -50.6007 20.1536 0 
-435.198 -50.5397 20.8176 0 
-434.812 -50.8073 20.2964 0 
-435.112 -50.6005 20.643 0 
-435.326 -50.4871 20.8138 0 
-435.245 -50.6031 20.4715 0 
-435.204 -50.5476 20.9687 0 
-435.252 -50.5659 20.4412 0 
-435.355 -50.7002 20.119 0 
-435.157 -50.5984 20.8052 0 
-435.255 -50.5537 20.6264 0 
-435.098 -50.8016 20.6501 0 
-434.768 -50.7658 20.4489 0 
-435.219 -50.5921 20.4551 0 
-435.238 -50.602 20.6394 0 
-435.075 -50.5895 20.9673 0 
-435.15 -50.6783 20.1238 0 
-435.329 -50.5314 20.6385 0 
-435.165 -50.8422 20.3137 0 
-435.183 -50.8329 20.161 0 
-435.002 -50.8093 19.9739 0 
-434.96 -50.7381 20.1375 0 
-435.12 -50.8096 20.8263 0 
-434.927 -50.7677 20.1199 0 
-434.877 -50.7372 20.2745 0 
-435.122 -50.5568 20.8012 0 
-435.37 -50.566 20.2981 0 
-435.311 -50.5742 20.6414 0 
-435.259 -50.4901 20.8004 0 
-435.329 -50.6319 20.3061 0 
-435.588 -50.4057 20.4658 0 
-435.168 -50.7627 20.4773 0 
-435.292 -50.6515 20.1528 0 
-434.903 -50.6449 20.7997 0 
-434.885 -50.6989 20.8179 0 
-434.947 -50.625 20.9732 0 
-434.893 -50.7684 20.2923 0 
-435.205 -50.5984 20.8066 0 
-435.139 -50.8853 20.1303 0 
-434.88 -50.6985 20.4299 0 
-435.549 -50.4522 20.6293 0 
-435.096 -50.5745 20.7864 0 
-435.249 -50.6036 20.6285 0 
-435.553 -50.4718 20.4594 0 
-435.399 -50.6166 20.1487 0 
-435.361 -50.5822 20.4597 0 
-435.188 -50.8826 20.478 0 
-435.188 -50.8925 19.9955 0 
-435.202 -50.8886 20.1647 0 
-434.943 -50.7797 20.1325 0 
-434.876 -50.6919 20.6323 0 
-435.435 -50.4641 20.7911 0 
-435.448 -50.5002 20.6288 0 
-435.328 -50.5081 20.7904 0 
-434.697 -50.8923 20.2936 0 
-434.789 -50.8018 20.4654 0 
-435.161 -50.7687 20.9621 0 
-434.617 -50.9075 20.4681 0 
-434.764 -50.8426 20.2991 0 
-434.621 -50.8309 20.4571 0 
-435.451 -50.5023 20.4724 0 
-434.712 -50.8437 20.4671 0 
-435.169 -50.6201 20.4666 0 
-434.949 -50.6662 20.7979 0 
-434.873 -50.6112 20.9417 0 
-435.561 -50.4481 20.297 0 
-435.166 -50.881 20.1567 0 
-435.179 -50.9392 19.9921 0 
-435.104 -50.8639 20.1718 0 
-434.875 -50.7732 20.148 0 
-435.042 -50.7123 20.9508 0 
-435.153 -50.8047 20.814 0 
-435.147 -50.832 20.4849 0 
-434.942 -50.7609 20.1541 0 
-434.812 -50.809 20.3006 0 
-434.568 -50.8748 20.4531 0 
-435.492 -50.4475 20.6388 0 
-435.269 -50.6392 20.1624 0 
-434.624 -50.9078 20.4647 0 
-435.321 -50.7161 20.0073 0 
-435.126 -50.6343 20.6364 0 
-435.191 -50.8718 20.1813 0 
-435.212 -50.8252 19.9965 0 
-435.251 -50.7231 19.9985 0 
-434.91 -50.755 20.3011 0 
-434.637 -50.8271 20.4564 0 
-434.721 -51.0075 20.3049 0 
-435.193 -50.8295 20.3414 0 
-435.332 -50.6096 20.4936 0 
-435.239 -50.6763 20.0204 0 
-434.767 -50.8526 20.3193 0 
-434.654 -50.857 20.6455 0 
-435.17 -50.6208 20.6489 0 
-435.255 -50.7355 20.027 0 
-435.298 -50.6157 20.4877 0 
-434.96 -50.6901 20.8071 0 
-435.176 -50.7614 20.1582 0 
-435.143 -50.8933 20.1699 0 
-434.881 -50.7471 20.9634 0 
-434.802 -50.847 20.3243 0 
-434.652 -50.865 20.2907 0 
-435.091 -50.8193 20.5001 0 
-435.054 -50.7994 20.3342 0 
-435.17 -50.8941 20.2038 0 
-434.865 -50.7233 20.6501 0 
-434.79 -50.815 20.4845 0 
-434.844 -50.8635 20.1802 0 
-434.777 -50.7325 20.618 0 
-434.805 -50.7441 20.7879 0 
-434.71 -50.8047 20.7968 0 
-435.152 -50.698 20.3096 0 
-434.851 -50.7562 20.4624 0 
-434.841 -50.7556 20.477 0 
-434.842 -50.7419 20.6444 0 
-434.872 -50.8064 20.321 0 
-434.6 -50.8822 20.4476 0 
-435.156 -50.7814 20.8084 0 
-434.764 -50.7863 20.635 0 
-435.351 -50.5784 20.4728 0 
-435.194 -50.8666 20.0308 0 
-434.882 -50.6833 20.9365 0 
-434.81 -50.7714 20.4667 0 
-435.499 -50.4775 20.4902 0 
-435.567 -50.5448 20.1929 0 
-435.235 -50.4946 20.796 0 
-435.297 -50.601 20.4714 0 
-435.33 -50.6294 20.1619 0 
-435.214 -50.6618 20.158 0 
-434.885 -50.7561 20.6378 0 
-435.625 -50.4776 20.3356 0 
-435.589 -50.4288 20.641 0 
-435.492 -50.5151 20.3093 0 
-435.451 -50.4126 20.7982 0 
-435.442 -50.5191 20.4721 0 
-434.751 -50.8802 20.3122 0 
-434.868 -50.6939 20.9149 0 
-434.865 -50.6858 20.6099 0 
-434.723 -50.8753 20.293 0 
-434.813 -50.9349 20.1596 0 
-434.909 -50.7383 20.3078 0 
-435.429 -50.5772 20.3342 0 
-435.254 -50.5352 20.8065 0 
-435.582 -50.4767 20.3298 0 
-434.804 -50.7747 20.44 0 
-434.834 -50.8207 20.287 0 
-434.796 -50.7328 20.7598 0 
-435.384 -50.4414 20.9354 0 
-434.692 -50.7983 20.6016 0 
-435.154 -50.6655 20.4748 0 
-435.297 -50.6735 20.0171 0 
-435.239 -50.6021 20.4734 0 
-435.341 -50.4512 20.7969 0 
-435.345 -50.5602 20.4751 0 
-435.373 -50.527 20.6501 0 
-435.512 -50.5285 20.1858 0 
-435.577 -50.5004 20.4814 0 
-435.542 -50.4483 20.6395 0 
-435.405 -50.5952 20.3312 0 
-434.838 -50.8179 20.2956 0 
-434.694 -50.7951 20.6079 0 
-434.796 -50.8961 20.1579 0 
-435.467 -50.5289 20.1756 0 
-435.374 -50.6072 20.1625 0 
-435.334 -50.5676 20.3158 0 
-435.135 -50.804 20.9311 0 
-435.2 -50.8713 20.1782 0 
-435.163 -50.8072 20.7902 0 
-434.709 -50.8235 20.4469 0 
-435.524 -50.4365 20.7758 0 
-435.248 -50.4665 20.8991 0 
-435.195 -50.5361 20.76 0 
-435.181 -50.694 20.1528 0 
-435.176 -50.7083 19.9934 0 
-435.168 -50.8132 20.6243 0 
-435.486 -50.4997 20.306 0 
-435.506 -50.4638 20.7641 0 
-435.417 -50.5158 20.292 0 
-435.318 -50.5297 20.6076 0 
-434.961 -50.7722 20.1465 0 
-435.327 -50.5925 20.616 0 
-435.316 -50.6173 20.3076 0 
-435.278 -50.5528 20.9008 0 
-435.322 -50.6036 20.459 0 
-435.226 -50.6513 20.1672 0 
-435.431 -50.5621 20.1711 0 
-435.415 -50.5507 20.4588 0 
-435.109 -50.6348 20.9185 0 
-435.144 -50.6973 20.3007 0 
-435.346 -50.5662 20.4569 0 
-435.27 -50.6531 20.3052 0 
-435.187 -50.6929 20.1627 0 
-434.905 -50.6862 20.7656 0 
-434.903 -50.7179 20.4476 0 
-435.169 -50.5297 20.9051 0 
-435.298 -50.6561 20.1662 0 
-435.182 -50.808 20.7802 0 
-435.2 -50.848 20.9244 0 
-435.165 -50.5315 20.9011 0 
-435.242 -50.6148 20.4484 0 
-435.187 -50.8204 20.632 0 
-435.51 -50.3991 20.7601 0 
-435.398 -50.4348 20.7587 0 
-435.282 -50.667 19.9965 0 
-435.601 -50.4437 20.6036 0 
-435.411 -50.5579 20.4497 0 
-435.346 -50.4719 20.7457 0 
-435.586 -50.5132 20.4644 0 
-435.242 -50.7063 20.1738 0 
-435.256 -50.737 20.0213 0 
-435.157 -50.7548 20.9165 0 
-434.697 -50.9145 20.4568 0 
-434.629 -50.8433 20.6094 0 
-435.264 -50.5593 20.7668 0 
-435.28 -50.592 20.6168 0 
-435.177 -50.6977 20.3013 0 
-435.171 -50.7979 20.9172 0 
-435.214 -50.8665 20.3197 0 
-435.34 -50.7044 20.0149 0 
-434.794 -50.7724 20.286 0 
-434.846 -50.7952 20.1492 0 
-434.779 -50.7282 20.9001 0 
-434.72 -50.8454 20.2887 0 
-435.204 -50.5557 20.901 0 
-435.127 -50.6005 20.7614 0 
-435.455 -50.478 20.6148 0 
-435.206 -50.8777 20.0139 0 
-435.035 -50.841 20.0077 0 
-434.694 -50.7921 20.7606 0 
-434.787 -51.0095 20.6284 0 
-434.758 -51.0032 20.468 0 
-435.404 -50.6012 20.312 0 
-435.325 -50.5006 20.9033 0 
-435.275 -50.6029 20.594 0 
-435.276 -50.619 20.4402 0 
-435.291 -50.6485 20.294 0 
-435.005 -50.8117 20.1725 0 
-435.535 -50.5312 20.4534 0 
-435.147 -50.6844 20.7685 0 
-435.224 -50.8006 20.3199 0 
-435.227 -50.7709 20.9151 0 
-435.212 -50.7809 20.7821 0 
-435.387 -50.5655 20.5957 0 
-435.405 -50.6128 20.2972 0 
-434.772 -50.6949 20.6033 0 
-434.834 -50.7484 20.9063 0 
-434.718 -50.7837 20.6084 0 
-434.744 -50.7859 20.7654 0 
-435.503 -50.5323 20.8801 0 
-435.428 -50.4733 20.5898 0 
-434.804 -50.7691 20.9016 0 
-434.708 -50.8224 20.6094 0 
-435.2 -50.7302 20.0218 0 
-435.101 -50.6188 20.8993 0 
-435.235 -50.8663 20.1927 0 
-434.793 -50.9344 20.2615 0 
-435.435 -50.5958 20.3046 0 
-435.48 -50.5394 20.1642 0 
-435.313 -50.5321 20.6108 0 
-435.244 -50.6206 20.4581 0 
-435.183 -50.7171 20.312 0 
-435.178 -50.7886 20.7774 0 
-434.888 -50.7865 20.2992 0 
-434.882 -50.7629 20.4512 0 
-434.801 -50.8272 20.4528 0 
-434.824 -50.7178 20.8849 0 
-434.829 -50.862 20.1565 0 
-435.226 -50.7881 20.461 0 
-435.185 -50.7227 20.7596 0 
-435.22 -50.9072 20.1863 0 
-434.777 -50.8056 20.546 0 
-435.329 -50.617 20.1641 0 
-435.247 -50.5206 21.0361 0 
-435.233 -50.6679 20.1631 0 
-435.63 -50.4585 20.5414 0 
-435.043 -50.7584 20.894 0 
-434.629 -50.8277 20.5409 0 
-435.588 -50.443 20.3868 0 
-434.739 -50.6481 20.7546 0 
-435.522 -50.5391 20.3041 0 
-435.609 -50.4821 20.6218 0 
-435.249 -50.862 20.3118 0 
-435.277 -50.8641 20.462 0 
-435.437 -50.5104 20.4565 0 
-435.204 -50.911 20.0373 0 
-434.923 -50.8346 20.2256 0 
-434.84 -50.7508 20.5174 0 
-434.838 -50.7319 20.665 0 
-434.883 -50.7729 20.3924 0 
-435.167 -50.6969 20.4116 0 
-435.275 -50.4994 20.7041 0 
-435.253 -50.6379 20.411 0 
-434.821 -50.8864 20.2236 0 
-434.757 -50.8175 20.799 0 
-435.222 -50.6788 20.3003 0 
-435.22 -50.769 20.8999 0 
-434.826 -50.7845 20.7091 0 
-434.874 -50.774 20.5174 0 
-434.661 -50.8762 20.515 0 
-435.182 -50.6925 20.5667 0 
-434.9 -50.9179 20.097 0 
-435.63 -50.4502 20.5565 0 
-435.405 -50.5572 20.2544 0 
-435.425 -50.5539 20.4028 0 
-435.328 -50.6224 20.2558 0 
-435.167 -50.7148 20.5568 0 
-435.084 -50.6393 20.6958 0 
-435.448 -50.4194 20.6931 0 
-435.239 -50.882 20.1102 0 
-435.326 -50.8564 19.9945 0 
-435.324 -50.5869 20.5536 0 
-435.251 -50.6684 20.4034 0 
-435.117 -50.6996 20.3643 0 
-434.707 -50.8489 20.7656 0 
-435.039 -50.6926 20.9979 0 
-435.511 -50.5849 20.1387 0 
-435.002 -50.8564 20.0903 0 
-434.822 -50.8642 20.3607 0 
-434.735 -50.893 20.6834 0 
-434.896 -50.8128 20.2306 0 
-435.171 -50.7272 20.5412 0 
-435.235 -50.8993 20.4067 0 
-435.189 -50.8371 20.6976 0 
-434.797 -50.8572 20.2927 0 
-435.288 -50.544 20.6965 0 
-435.275 -50.8945 19.9603 0 
-434.934 -50.7674 20.6523 0 
-435.154 -50.8321 20.8287 0 
-434.885 -50.7729 20.5311 0 
-435.359 -50.6328 20.3789 0 
-435.309 -50.5868 20.5237 0 
-435.281 -50.6964 20.3799 0 
-435.233 -50.8952 19.9627 0 
-435.244 -50.8036 20.2412 0 
-435.168 -50.7258 20.528 0 
-435.235 -50.7816 20.1062 0 
-435.23 -50.7781 20.384 0 
-435.284 -50.9062 19.8802 0 
-435.184 -50.8515 20.5423 0 
-434.672 -50.8612 20.6558 0 
-435.165 -50.8358 20.8142 0 
-435.273 -50.866 20.2326 0 
-435.207 -50.8004 20.5176 0 
-435.477 -50.4502 20.6662 0 
-435.192 -50.7572 20.3829 0 
-435.186 -50.7218 20.9602 0 
-435.319 -50.7204 20.1065 0 
-435.335 -50.6124 20.1702 0 
-434.905 -50.8883 20.2095 0 
-434.748 -50.7743 20.7745 0 
-435.204 -50.7821 20.9384 0 
-435.413 -50.5395 20.5251 0 
-435.377 -50.4994 20.9458 0 
-434.754 -50.7719 20.7482 0 
-434.654 -50.8184 20.4749 0 
-435.385 -50.5238 20.5256 0 
-435.326 -50.6142 20.0986 0 
-435.214 -50.5095 20.9469 0 
-435.475 -50.3351 20.6611 0 
-435.211 -50.8999 20.2502 0 
-434.923 -50.858 20.0598 0 
-434.884 -50.8543 20.19 0 
-435.474 -50.457 20.83 0 
-435.187 -50.8308 20.4245 0 
-435.365 -50.6246 20.0956 0 
-435.274 -50.5693 20.3626 0 
-435.219 -50.7598 20.8257 0 
-435.137 -50.7195 20.3856 0 
-435.212 -50.6232 20.6722 0 
-435.238 -50.6716 20.0978 0 
-435.157 -50.7527 20.2334 0 
-435.221 -50.8077 20.7937 0 
-434.881 -50.7607 20.95 0 
-435.461 -50.4595 20.5241 0 
-435.467 -50.4636 20.8023 0 
-435.301 -50.4681 20.797 0 
-435.221 -50.6275 20.669 0 
-435.276 -50.6817 20.0944 0 
-435.192 -50.6174 20.5137 0 
-435.309 -50.5381 20.6517 0 
-435.384 -50.4931 20.9376 0 
-435.438 -50.4085 20.8988 0 
-435.059 -50.6462 20.3497 0 
-435.206 -50.8212 20.9188 0 
-435.206 -50.8222 20.6422 0 
-434.835 -50.7649 20.4745 0 
-434.799 -50.6744 20.9203 0 
-435.279 -50.948 19.9483 0 
-435.401 -50.5661 20.2321 0 
-434.651 -50.8311 20.3212 0 
-434.773 -50.7164 20.9001 0 
-434.843 -50.8034 20.4837 0 
-435.166 -50.5959 20.352 0 
-435.315 -50.4279 20.7284 0 
-435.228 -50.4904 20.7297 0 
-435.366 -50.4914 20.9608 0 
-435.225 -50.5206 21.0079 0 
-435.157 -50.5934 21.0111 0 
-435.115 -50.6472 20.9322 0 
-434.898 -50.4927 21.0594 0 
-435.11 -50.6537 20.0705 0 
-435.436 -50.4486 20.9078 0 
-435.184 -50.5538 20.6433 0 
-435.183 -50.5527 20.9232 0 
-435.246 -50.4248 21.0023 0 
-435.255 -50.4839 20.9208 0 
-435.014 -50.8064 20.5082 0 
-435.221 -50.7586 20.7327 0 
-435.289 -50.4771 20.9055 0 
-435.414 -50.5453 20.6374 0 
-435.227 -50.5354 20.8645 0 
-435.126 -50.6068 20.9092 0 
-435.115 -50.6948 20.2106 0 
-435.115 -50.6643 20.7847 0 
-435.388 -50.4496 20.9223 0 
-435.158 -50.5606 20.9278 0 
-435.249 -50.6787 20.3794 0 
-435.339 -50.4383 20.7728 0 
-435.071 -50.6093 20.8806 0 
-435.203 -50.7778 20.8953 0 
-435.225 -50.7905 20.6203 0 
-434.814 -50.8108 20.6038 0 
-434.752 -50.7978 20.7338 0 
-435.346 -50.4852 20.9808 0 
-435.206 -50.8378 20.884 0 
-435.206 -50.893 19.9657 0 
-434.793 -50.7786 20.7184 0 
-435.174 -50.6327 20.7221 0 
-435.226 -50.7438 20.8783 0 
-435.209 -50.8562 20.7391 0 
-435.284 -50.4727 20.8346 0 
-435.159 -50.5481 20.9879 0 
-434.94 -50.7815 20.8526 0 
-435.22 -50.8029 20.7512 0 
-435.003 -50.6698 21.0284 0 
-435.321 -50.5171 20.9892 0 
-434.769 -50.8461 20.6719 0 
-434.72 -50.8122 20.6978 0 
-435.254 -50.7496 20.9764 0 
-435.263 -50.7676 20.8336 0 
-434.711 -50.802 20.6688 0 
-434.687 -50.8379 20.7186 0 
-435.342 -50.4651 20.8997 0 
-435.218 -50.8124 20.7164 0 
-435.189 -50.5758 20.8458 0 
-434.738 -50.7991 20.648 0 
-435.315 -50.5859 20.3772 0 
-435.184 -50.4826 20.9696 0 
-435.131 -50.5969 20.6827 0 
-435.111 -50.5712 20.8284 0 
-435.461 -50.6484 20.0871 0 
-435.359 -50.5822 20.3705 0 
-435.63 -50.5595 20.4128 0 
-435.204 -50.8295 20.7023 0 
-435.66 -50.4885 20.5305 0 
-435.494 -50.5797 20.0931 0 
-435.372 -50.6385 20.0895 0 
-435.204 -50.7329 20.9941 0 
-435.292 -50.694 20.0786 0 
-435.504 -50.6073 20.1188 0 
-435.439 -50.5429 20.2306 0 
-435.562 -50.4271 20.7658 0 
-435.161 -50.8184 20.9988 0 
-435.098 -50.825 20.706 0 
-435.249 -50.8408 20.5048 0 
-435.32 -50.5943 20.1904 0 
-435.185 -50.7251 20.3473 0 
-435.545 -50.6044 20.2646 0 
-435.412 -50.4925 20.3414 0 
-435.362 -50.4726 20.4819 0 
-435.317 -50.4718 20.6126 0 
-435.315 -50.5775 20.3411 0 
-435.313 -50.5589 20.4862 0 
-434.939 -50.8312 20.6926 0 
-435.369 -50.6639 20.0189 0 
-435.232 -50.5936 20.3047 0 
-435.431 -50.4417 20.5831 0 
-435.31 -50.5137 20.3028 0 
-435.188 -50.6234 20.4853 0 
-435.439 -50.6344 20.0585 0 
-435.207 -50.8131 20.848 0 
-435.251 -50.7931 20.6019 0 
-435.233 -50.9279 20.0306 0 
-435.176 -50.7213 20.4923 0 
-435.191 -50.7435 20.3473 0 
-435.234 -50.7949 20.3207 0 
-435.259 -50.6483 20.2951 0 
-435.21 -50.4814 20.5424 0 
-435.253 -50.6806 20.4244 0 
-435.286 -50.7224 20.1266 0 
-435.228 -50.7933 20.2829 0 
-435.224 -50.8572 20.2607 0 
-435.224 -50.856 20.1556 0 
-435.086 -50.8516 20.5996 0 
-435.211 -50.7711 20.4291 0 
-434.67 -50.8075 20.5655 0 
-435.066 -50.6317 20.7006 0 
-435.281 -50.5886 20.4546 0 
-435.253 -50.8811 20.0114 0 
-435.238 -50.8618 20.1191 0 
-435.248 -50.8403 20.5601 0 
-435.196 -50.6438 20.5283 0 
-434.8 -50.8677 20.2497 0 
-435.267 -50.7769 20.7177 0 
-435.185 -50.6294 20.3908 0 
-434.897 -50.8748 20.2589 0 
-434.739 -50.8618 20.5443 0 
-435.045 -50.7116 20.0961 0 
-435.22 -50.8263 20.274 0 
-435.169 -50.828 20.4101 0 
-435.057 -50.6972 20.2546 0 
-435.228 -50.8088 20.4242 0 
-435.245 -50.8235 20.5627 0 
-435.488 -50.3309 20.8401 0 
-435.45 -50.5676 20.3125 0 
-434.981 -50.6712 20.8394 0 
-434.843 -50.771 20.3013 0 
-435.174 -50.7871 20.31 0 
-434.977 -50.7418 20.1439 0 
-435.295 -50.5109 20.8312 0 
-435.162 -50.5812 20.4796 0 
-435.27 -50.7173 20.9036 0 
-435.427 -50.5335 20.3546 0 
-435.227 -50.6601 20.5381 0 
-435.276 -50.9348 20.0422 0 
-435.357 -50.5499 20.3169 0 
-435.365 -50.5231 20.4916 0 
-435.496 -50.4561 20.8377 0 
-435.005 -50.6756 20.7119 0 
-434.89 -50.7671 20.3952 0 
-435.251 -50.4769 20.9844 0 
-435.524 -50.4374 20.8292 0 
-435.266 -50.833 20.1688 0 
-435.247 -50.7646 20.8612 0 
-435.271 -50.8415 20.3304 0 
-435.231 -50.5308 20.8399 0 
-435.244 -50.8115 20.7839 0 
-434.904 -50.7339 20.6685 0 
-435.247 -50.779 20.9649 0 
-435.127 -50.6492 20.4769 0 
-435.246 -50.8162 20.4142 0 
-435.238 -50.7657 20.7727 0 
-435.415 -50.9446 19.906 0 
-435.223 -50.666 20.2015 0 
-435.019 -50.6305 20.9013 0 
-435.233 -50.8624 20.7432 0 
-435.195 -50.8175 20.2488 0 
-435.27 -50.8179 20.437 0 
-435.283 -50.8343 20.0937 0 
-435.403 -50.6951 19.9932 0 
-435.282 -50.8741 20.0013 0 
-435.226 -50.8146 20.7265 0 
-435.229 -50.782 20.9128 0 
-435.364 -50.6341 20.3337 0 
-435.261 -50.8472 20.4875 0 
-435.268 -50.9047 20.1147 0 
-435.569 -50.5841 20.1738 0 
-435.252 -50.9403 20.5794 0 
-435.645 -50.5781 20.1873 0 
-435.227 -50.686 20.5544 0 
-435.236 -50.8147 20.5669 0 
-435.301 -50.8798 20.0113 0 
-435.275 -50.8618 20.5724 0 
-435.259 -50.8486 20.9453 0 
-435.145 -50.4982 20.9069 0 
-435.121 -50.8589 20.1877 0 
-435.26 -50.8214 20.7701 0 
-435.245 -50.7884 20.9222 0 
-435.286 -50.8207 20.1804 0 
-435.268 -50.9009 20.0067 0 
-435.252 -50.8767 20.2282 0 
-435.315 -50.969 19.8697 0 
-434.994 -50.7816 20.1748 0 
-435.209 -50.7417 20.5359 0 
-435.655 -50.5394 20.3643 0 
-435.452 -50.4811 20.8663 0 
-435.533 -50.4464 20.7388 0 
-435.255 -50.9192 19.8739 0 
-435.278 -50.8348 20.5926 0 
-435.303 -50.8836 20.2243 0 
-435.248 -50.9737 19.88 0 
-435.275 -50.8297 20.2097 0 
-435.305 -50.9181 19.9102 0 
-435.294 -50.8376 20.0701 0 
-435.282 -50.8865 20.0737 0 
-435.637 -50.4835 20.5864 0 
-435.255 -50.8813 20.6164 0 
-435.307 -50.9092 20.2584 0 
-435.476 -50.5919 20.3891 0 
-434.683 -50.7751 20.7715 0 
-435.561 -50.5975 20.5815 0 
-435.269 -50.8695 20.2416 0 
-435.321 -50.7903 20.1765 0 
-435.672 -50.4454 20.4871 0 
-435.301 -50.899 20.032 0 
-435.329 -50.9555 19.8599 0 
-434.852 -50.7131 20.9471 0 
-435.274 -50.9121 20.1304 0 
-435.683 -50.4494 20.2734 0 
-435.548 -50.3815 20.2597 0 
-435.623 -50.4843 20.6114 0 
-435.642 -50.5251 20.613 0 
-435.686 -50.5483 20.2809 0 
-435.369 -50.7256 20.9436 0 
-435.62 -50.4957 20.6032 0 
-435.335 -50.8749 19.9731 0 
-435.387 -50.5331 20.759 0 
-434.94 -50.6836 20.9535 0 
-435.335 -50.7685 20.1191 0 
-435.411 -50.565 20.7556 0 
-435.662 -50.4885 20.4398 0 
-435.343 -50.5966 20.9278 0 
-435.447 -50.4397 20.9183 0 
-434.836 -50.6374 20.8862 0 
-435.172 -50.5286 21.0463 0 
-435.67 -50.5328 20.4144 0 
-435.091 -50.6891 20.8963 0 
-435.16 -50.5837 21.0514 0 
-434.836 -50.7709 20.7411 0 
-434.846 -50.7249 20.7297 0 
-435.012 -50.7259 20.9008 0 
-434.791 -50.7215 20.7227 0 
-434.737 -50.7358 20.7448 0 
-434.834 -50.7892 20.753 0 
-435.488 -50.4852 20.8914 0 
-435.484 -50.5292 20.7317 0 
-435.348 -50.7402 19.9529 0 
-435.297 -50.9727 19.9619 0 
-435.343 -50.7856 20.9216 0 
-435.684 -50.5205 20.4178 0 
-435.687 -50.4796 20.5752 0 
-434.814 -50.6483 20.7159 0 
-434.872 -50.6515 20.8982 0 
-435.464 -50.4481 20.8732 0 
-435.505 -50.4291 20.7253 0 
-435.623 -50.4295 20.5832 0 
-435.558 -50.5366 20.7388 0 
-434.911 -50.6485 20.9069 0 
-435.706 -50.4942 20.5924 0 
-435.672 -50.4722 20.5924 0 
-435.149 -51.2561 20.3205 0 
-435.302 -50.5061 20.8872 0 
-435.267 -50.8257 19.9474 0 
-435.298 -50.4919 20.8934 0 
-435.642 -50.5521 20.4397 0 
-435.662 -50.495 20.4803 0 
-435.657 -50.4629 20.6361 0 
-435.508 -50.3387 20.8662 0 
-435.646 -50.4518 20.5831 0 
-435.661 -50.4655 20.4204 0 
-435.38 -50.4477 20.8804 0 
-435.288 -50.9101 19.9752 0 
-435.481 -50.6638 20.1158 0 
-435.364 -50.7317 20.0552 0 
-435.651 -50.4728 20.3487 0 
-435.253 -50.4339 20.8043 0 
-435.27 -50.3473 20.8851 0 
-435.288 -50.7182 20.0128 0 
-435.282 -50.9129 20.0283 0 
-435.019 -50.5211 20.7527 0 
-435.231 -50.3955 20.7425 0 
-435.586 -50.535 20.1411 0 
-435.199 -50.791 19.9815 0 
-435.106 -50.6623 20.9023 0 
-434.755 -50.636 20.8575 0 
-434.997 -50.6079 21.0266 0 
-435.22 -50.5771 21.08 0 
-434.803 -50.7179 20.8198 0 
-434.882 -50.7131 20.1789 0 
-435.39 -50.5344 20.7678 0 
-435.28 -50.8705 19.998 0 
-435.613 -50.4175 20.6008 0 
-434.82 -50.6059 20.8502 0 
-435.127 -50.4806 20.7015 0 
-435.663 -50.3544 20.703 0 
-434.949 -50.5608 20.7592 0 
-434.922 -50.9842 20.1733 0 
-435.391 -50.6058 20.0035 0 
-435.606 -50.3851 20.7548 0 
-435.633 -50.4683 20.285 0 
-435.229 -50.8853 19.927 0 
-434.968 -50.8741 20.0691 0 
-435.489 -50.6797 20.3663 0 
-435.531 -50.5154 20.6731 0 
-435.265 -50.9819 19.9574 0 
-435.587 -50.4306 20.6879 0 
-435.604 -50.4971 20.3764 0 
-435.602 -50.4781 20.2334 0 
-435.49 -50.4073 20.8235 0 
-435.578 -50.5021 20.2362 0 
-435.532 -50.425 20.8351 0 
-435.577 -50.3926 20.6779 0 
-435.161 -50.5182 20.9733 0 
-435.286 -50.473 20.9699 0 
-435.278 -50.9167 19.9077 0 
-435.698 -50.433 20.531 0 
-435.105 -50.9027 20.0648 0 
-435.113 -50.631 20.9549 0 
-435.649 -50.4729 20.6574 0 
-434.884 -50.633 20.9399 0 
-435.013 -50.6044 20.9439 0 
-435.04 -50.7475 20.3298 0 
-435.011 -50.8055 20.1924 0 
-435.268 -50.5391 20.9505 0 
-435.279 -50.777 20.0542 0 
-435.394 -50.7025 20.3545 0 
-435.513 -50.6062 20.5061 0 
-435.294 -50.5279 20.9831 0 
-435.625 -50.4241 20.78 0 
-434.944 -50.4652 20.9494 0 
-435.122 -50.7995 20.0742 0 
-435.032 -50.8161 20.0486 0 
-435.136 -50.5352 20.8279 0 
-435.32 -50.6257 20.7955 0 
-435.02 -50.5841 20.9023 0 
-434.712 -50.795 20.5119 0 
-435.47 -50.5088 20.7897 0 
-435.011 -50.6105 20.9389 0 
-434.727 -50.8659 20.663 0 
-434.667 -50.8196 20.4903 0 
-434.783 -50.6817 20.6197 0 
-434.755 -50.6721 20.7738 0 
-434.784 -50.6165 20.9101 0 
-434.918 -50.7645 20.179 0 
-434.785 -50.6228 20.8222 0 
-435.619 -50.4268 20.5325 0 
-435.216 -50.9082 19.931 0 
-435.145 -50.596 20.8418 0 
-435.6 -50.5268 20.25 0 
-435.467 -50.3924 20.8316 0 
-435.535 -50.4305 20.8112 0 
-435.534 -50.3885 20.7671 0 
-435.701 -50.4324 20.5113 0 
-435.315 -50.8831 19.8836 0 
-435.639 -50.529 20.2808 0 
-435.631 -50.4678 20.5484 0 
-435.618 -50.4244 20.6913 0 
-435.111 -50.5731 21.0573 0 
-434.992 -50.5125 20.8727 0 
-434.958 -50.6577 20.5966 0 
-434.962 -50.8296 20.0967 0 
-434.88 -50.8894 20.1745 0 
-435.056 -50.5456 21.0408 0 
-435.287 -50.3348 20.8661 0 
-435.441 -50.6555 20.0673 0 
-435.51 -50.5196 20.1019 0 
-435.351 -50.5326 20.5091 0 
-435.596 -50.4719 20.3811 0 
-435.607 -50.4261 20.2466 0 
-435.563 -50.4392 20.7662 0 
-435.627 -50.5015 20.5343 0 
-435.589 -50.4477 20.8251 0 
-434.94 -50.8242 20.0912 0 
-435.043 -50.5078 20.9376 0 
-434.755 -50.7907 20.7569 0 
-435.363 -50.475 20.9598 0 
-435.483 -50.3251 20.6033 0 
-434.763 -50.6901 20.8069 0 
-435.584 -50.5217 20.2469 0 
-435.639 -50.4778 20.6648 0 
-435.154 -50.4853 20.9434 0 
-435.259 -50.8982 19.9799 0 
-435.685 -50.409 20.5119 0 
-435.562 -50.5587 20.102 0 
-435.109 -50.6291 20.9503 0 
-435.632 -50.4409 20.5449 0 
-435.263 -50.6553 20.0674 0 
-435.214 -50.4483 20.8648 0 
-435.159 -50.681 20.0588 0 
-435.261 -50.5187 21.0268 0 
-435.376 -50.5959 20.0731 0 
-434.631 -50.9945 20.5269 0 
-435.501 -50.4399 20.7637 0 
-435.307 -50.3779 20.8225 0 
-435.363 -50.5093 20.9513 0 
-435.443 -50.6954 20.0924 0 
-435.484 -50.4459 20.2098 0 
-435.496 -50.4106 20.3329 0 
-435.022 -50.4953 20.8808 0 
-435.13 -50.468 20.8864 0 
-435.422 -50.4687 20.9143 0 
-435.411 -50.4989 20.7885 0 
-434.928 -50.7951 20.1562 0 
-435.721 -50.3769 20.3809 0 
-434.764 -50.8781 20.2844 0 
-434.719 -50.7476 20.8271 0 
-435.348 -50.5748 20.5015 0 
-435.459 -50.6227 20.3763 0 
-434.829 -50.5822 20.925 0 
-434.748 -50.7971 20.8176 0 
-434.813 -50.8697 20.239 0 
-435.585 -50.4108 20.8348 0 
-434.796 -50.5782 20.8735 0 
-434.686 -50.8734 20.4095 0 
-434.917 -50.9225 20.4509 0 
-435.268 -50.5553 20.6946 0 
-435.326 -50.7415 20.0486 0 
-435.06 -50.5532 20.9371 0 
-435.644 -50.4492 20.6753 0 
-435.153 -50.7011 20.0243 0 
-435.326 -50.8561 19.9213 0 
-435.443 -50.5885 20.7177 0 
-435.144 -50.4517 20.7663 0 
-434.682 -50.8244 20.6562 0 
-434.723 -50.7732 20.5149 0 
-435.136 -50.6462 21.0731 0 
-434.87 -50.6529 20.761 0 
-435.332 -50.4004 20.6564 0 
-434.721 -50.9221 20.43 0 
-435.32 -50.4824 20.7768 0 
-434.76 -50.6542 20.856 0 
-434.875 -50.6419 20.8921 0 
-435.007 -50.6393 20.7837 0 
-435.024 -50.9852 20.0317 0 
-434.836 -50.598 20.7593 0 
-434.753 -50.6658 20.5008 0 
-434.827 -50.624 20.6363 0 
-434.844 -50.5619 20.7491 0 
-435.418 -50.7014 20.0618 0 
-435.392 -50.4067 20.8357 0 
-435.387 -50.7222 20.3312 0 
-435.597 -50.531 20.4485 0 
-435.118 -50.6612 20.54 0 
-435.119 -50.5032 20.8099 0 
-435.632 -50.499 20.3279 0 
-435.25 -50.4601 20.8964 0 
-435.358 -50.4695 20.7771 0 
-435.376 -50.4967 20.5367 0 
-435.116 -50.7999 20.4103 0 
-435.265 -50.4957 20.6542 0 
-435.103 -50.6359 20.7652 0 
-435.085 -50.6009 20.8891 0 
-435.632 -50.393 20.4511 0 
-435.595 -50.4406 20.7228 0 
-434.919 -50.6116 20.644 0 
-435.416 -50.6523 20.0491 0 
-435.169 -50.6611 20.8816 0 
-435.171 -50.5323 20.9855 0 
-435.272 -50.592 20.142 0 
-435.272 -50.4371 20.9782 0 
-435.508 -50.5317 20.3987 0 
-435.676 -50.5033 20.4135 0 
-435.285 -50.6176 20.7571 0 
-435.355 -50.7302 20.0403 0 
-435.08 -50.6912 20.8776 0 
-435.34 -50.5185 21.0005 0 
-435.359 -50.5335 20.879 0 
-435.55 -50.4754 20.5523 0 
-435.569 -50.4654 20.2887 0 
-435.561 -50.3873 20.409 0 
-434.989 -50.4861 20.878 0 
-435.025 -50.6469 20.4213 0 
-434.786 -50.683 20.8927 0 
-435.1 -50.4631 20.6314 0 
-434.963 -50.6297 20.127 0 
-435.22 -50.5949 20.5258 0 
-435.629 -50.5196 20.3064 0 
-435.035 -50.533 21.0183 0 
-435.084 -50.5257 20.771 0 
-435.052 -50.5958 21.0466 0 
-435.137 -50.4467 20.7601 0 
-435.506 -50.5332 20.416 0 
-435.45 -50.4641 20.9029 0 
-435.454 -50.5628 20.6743 0 
-435.412 -50.3871 20.7786 0 
-435.379 -50.4225 20.915 0 
-435.4 -50.5564 20.5539 0 
-435.213 -50.3849 20.8915 0 
-435.327 -50.38 20.7686 0 
-435.022 -50.5557 20.646 0 
-435.443 -50.5541 20.1571 0 
-435.665 -50.4453 20.552 0 
-435.226 -50.6095 20.3803 0 
-435.233 -50.4449 20.5863 0 
-435.346 -50.5062 20.4044 0 
-435.574 -50.5235 20.2811 0 
-434.673 -50.7942 20.6386 0 
-434.715 -50.8326 20.377 0 
-435.447 -50.4544 20.4484 0 
-435.074 -50.5411 21.0648 0 
-435.356 -50.3953 20.8328 0 
-435.603 -50.4632 20.5717 0 
-435.399 -50.5389 20.2164 0 
-435.415 -50.4208 20.7829 0 
-435.499 -50.5134 20.1069 0 
-435.362 -50.4888 20.8981 0 
-435.396 -50.5552 20.5392 0 
-434.994 -51.0026 20.0401 0 
-434.702 -50.7529 20.5246 0 
-434.688 -50.8169 20.423 0 
-434.84 -50.7703 20.0665 0 
-435.54 -50.4893 20.346 0 
-435.404 -50.4353 20.9674 0 
-435.563 -50.4366 20.7805 0 
-435.155 -50.6847 20.1552 0 
-435.01 -50.4868 20.7436 0 
-434.774 -50.6586 20.7089 0 
-434.63 -50.8416 20.5806 0 
-435.373 -50.3853 20.6531 0 
-435.043 -50.4999 20.6984 0 
-435.07 -50.6135 20.3678 0 
-435.142 -50.5188 20.5825 0 
-435.19 -50.5767 20.1397 0 
-435.113 -50.5782 20.7076 0 
-434.918 -50.5747 20.9243 0 
-434.86 -50.6066 20.8044 0 
-435.527 -50.5539 20.463 0 
-435.52 -50.4538 20.5695 0 
-435.481 -50.4454 20.922 0 
-435.554 -50.5108 20.3331 0 
-434.897 -50.6483 20.9786 0 
-435.316 -50.4793 20.8058 0 
-435.349 -50.483 20.479 0 
-435.139 -50.5419 20.9157 0 
-435.224 -50.4629 20.3509 0 
-435.239 -50.5118 20.8039 0 
-435.275 -50.5227 20.58 0 
-435.368 -50.4842 20.3687 0 
-435.453 -50.5519 20.2698 0 
-435.441 -50.494 20.3776 0 
-435.472 -50.5559 20.1597 0 
-435.129 -50.4755 20.4556 0 
-434.954 -50.553 20.6685 0 
-434.897 -50.5529 20.5684 0 
-435.28 -50.4238 20.6523 0 
-435.379 -50.4119 20.5411 0 
-435.37 -50.477 21.042 0 
-435.443 -50.5783 20.4572 0 
-435.529 -50.4067 20.6734 0 
-435.084 -50.6426 20.5513 0 
-435.214 -50.8888 19.9794 0 
-435.12 -50.515 21.0236 0 
-435.326 -50.5764 20.1938 0 
-435.252 -50.5214 20.8789 0 
-435.328 -50.4418 20.3254 0 
-435.064 -50.5616 20.54 0 
-435.415 -50.487 20.2308 0 
-435.029 -50.737 20.2212 0 
-435.051 -50.6913 20.0029 0 
-435.286 -50.4981 21.0374 0 
-434.808 -50.6628 20.9501 0 
-434.813 -50.7971 20.2345 0 
-435.261 -50.5683 20.1247 0 
-435.181 -50.5131 20.8701 0 
-435.272 -50.6584 20.0232 0 
-435.222 -50.4635 20.6414 0 
-435.048 -50.5563 20.7524 0 
-435.109 -50.6399 20.1168 0 
-435.125 -50.6736 20.0091 0 
-435.082 -50.5753 20.4326 0 
-435.182 -50.6363 20.1242 0 
-434.726 -50.7967 20.2541 0 
-435.016 -50.587 20.3657 0 
-435.118 -50.6193 20.0628 0 
-435.068 -50.6036 20.4863 0 
-435.123 -50.7761 19.9691 0 
-434.966 -50.7195 20.0581 0 
-434.944 -50.595 20.3593 0 
-434.976 -50.6292 20.5903 0 
-434.804 -50.6953 20.8931 0 
-435.157 -50.5509 20.437 0 
-435.248 -50.5414 20.3302 0 
-435.08 -50.7273 19.9794 0 
-435.017 -50.5064 20.7581 0 
-435.062 -50.4772 20.5189 0 
-435.591 -50.3711 20.7981 0 
-434.806 -50.8403 20.1918 0 
-435.242 -50.8412 19.8873 0 
-435.459 -50.3786 20.4437 0 
-434.884 -50.6681 20.254 0 
-434.831 -50.6459 20.5784 0 
-434.926 -50.6065 20.4722 0 
-435.331 -50.5081 20.6986 0 
-435.405 -50.5011 20.7051 0 
-435.341 -50.6725 19.9301 0 
-435.242 -50.6007 20.1274 0 
-435.22 -50.6818 20.243 0 
-435.241 -50.4824 20.8384 0 
-435.112 -50.6084 20.7392 0 
-435.152 -50.5484 20.9487 0 
-435.025 -50.5934 20.8372 0 
-435.085 -50.6842 20.3262 0 
-434.897 -50.6736 20.729 0 
-435.128 -50.569 20.531 0 
-435.097 -50.5688 20.8399 0 
-435.64 -50.4515 20.3884 0 
-435.567 -50.5155 20.2977 0 
-434.782 -50.5918 20.6392 0 
-435.15 -50.5666 20.4938 0 
-434.798 -50.6077 20.539 0 
-435.089 -50.544 20.7717 0 
-435.399 -50.4667 20.772 0 
-434.756 -50.6928 20.3349 0 
-435.32 -50.447 20.9054 0 
-435.079 -50.5877 20.9881 0 
-435.347 -50.5311 20.1509 0 
-435.27 -50.5431 20.7175 0 
-435.249 -50.5588 20.8347 0 
-435.491 -50.4587 20.4771 0 
-434.867 -50.5799 20.5416 0 
-434.947 -50.6248 20.4484 0 
-434.985 -50.5802 20.9985 0 
-434.85 -50.5736 20.7531 0 
-435.298 -50.4449 20.4828 0 
-435.219 -50.4748 20.4792 0 
-435.529 -50.4259 20.6073 0 
-435.541 -50.461 20.3956 0 
-435.466 -50.4604 20.3878 0 
-435.469 -50.4815 20.8249 0 
-434.705 -50.7172 20.6706 0 
-434.724 -50.7094 20.4486 0 
-435.584 -50.5314 20.3974 0 
-435.48 -50.4979 20.2754 0 
-435.23 -50.5224 20.4235 0 
-435.008 -50.4699 20.6002 0 
-435.041 -50.5924 20.225 0 
-434.888 -50.6158 20.4516 0 
-434.946 -50.6291 20.1131 0 
-435.323 -50.5076 20.2783 0 
-434.854 -50.5896 20.7407 0 
-435.155 -50.7525 19.9902 0 
-435.555 -50.4342 20.6177 0 
-435.506 -50.5116 20.3838 0 
-435.197 -50.3874 20.7953 0 
-435.296 -50.5002 20.4261 0 
-435.147 -50.3992 20.6912 0 
-435.583 -50.3724 20.5649 0 
-435.36 -50.4887 20.4987 0 
-435.345 -50.5052 20.706 0 
-435.215 -50.5515 20.4933 0 
-435.239 -50.5155 20.9174 0 
-435.037 -50.5061 21.1003 0 
-435.603 -50.3419 20.4535 0 
-435.653 -50.373 20.5724 0 
-435.472 -50.5903 20.0963 0 
-435.403 -50.4103 20.806 0 
-435.432 -50.4515 20.5006 0 
-435.416 -50.4946 20.7114 0 
-435.458 -50.5112 20.1953 0 
-434.724 -50.6215 20.5611 0 
-434.757 -50.7541 20.7985 0 
-434.798 -50.6015 20.6609 0 
-435.166 -50.4991 20.7944 0 
-434.689 -50.8718 20.3543 0 
-434.747 -50.7551 20.5368 0 
-435.4 -50.4812 20.8867 0 
-435.489 -50.4547 20.2346 0 
-435.511 -50.3728 20.5576 0 
-435.087 -50.5164 20.514 0 
-435.315 -50.4792 20.8716 0 
-435.397 -50.6143 20.0839 0 
-435.375 -50.4228 20.4875 0 
-435.141 -50.6893 19.9658 0 
-435.045 -50.5002 20.9057 0 
-435.158 -50.5744 20.4412 0 
-435.195 -50.8481 20.0616 0 
-435.266 -50.4571 20.7573 0 
-434.977 -50.5165 20.8458 0 
-434.992 -50.55 20.7471 0 
-435.493 -50.4038 20.832 0 
-435.534 -50.6123 20.051 0 
-435.249 -50.564 20.2779 0 
-434.914 -50.606 20.3234 0 
-434.933 -50.5105 20.7977 0 
-435.389 -50.4826 20.3828 0 
-434.991 -50.6519 20.2378 0 
-434.945 -50.5325 20.7041 0 
-435.367 -50.5106 20.2362 0 
-435.407 -50.5172 20.5509 0 
-435.244 -50.5517 20.3286 0 
-435.192 -50.694 20.0726 0 
-434.686 -50.8133 20.4254 0 
-435.219 -50.8782 20.0392 0 
-435.169 -50.5363 20.4716 0 
-435.064 -50.5991 20.1914 0 
-435.167 -50.8194 19.9305 0 
-435.004 -50.5644 21.025 0 
-435.013 -50.5551 20.8375 0 
-435.057 -50.5563 20.3664 0 
-434.703 -50.707 20.6511 0 
-435.181 -50.4894 20.8604 0 
-434.886 -50.6373 20.965 0 
-435.019 -50.5566 20.4454 0 
-434.959 -50.5706 20.959 0 
-435.145 -50.5405 21.0246 0 
-435.406 -50.4056 20.715 0 
-435.314 -50.4325 21.0242 0 
-435.322 -50.4317 20.8406 0 
-435.544 -50.4521 20.5443 0 
-435.256 -50.5329 20.285 0 
-435.459 -50.4942 20.658 0 
-435.131 -50.4813 20.7485 0 
-435.164 -50.5862 20.2673 0 
-435.556 -50.4224 20.4377 0 
-435.456 -50.4002 20.8203 0 
-435.063 -50.66 20.1859 0 
-435.319 -50.6546 20.0768 0 
-435.23 -50.8859 19.9377 0 
-435.087 -50.5208 20.7414 0 
-434.846 -50.6672 20.9217 0 
-435.21 -50.6463 20.0083 0 
-435.176 -50.6127 20.3669 0 
-435.64 -50.51 20.2636 0 
-434.915 -50.7889 20.1341 0 
-434.654 -50.6807 20.8008 0 
-434.956 -50.6888 20.085 0 
-434.996 -50.702 20.3633 0 
-435.382 -50.4916 20.9271 0 
-434.843 -50.6157 20.2101 0 
-434.752 -50.4762 20.6696 0 
-434.751 -50.641 20.5032 0 
-435.6 -50.3691 20.7257 0 
-435.025 -50.5511 20.7415 0 
-434.901 -50.57 20.7053 0 
-435.296 -50.4499 21.0191 0 
-435.316 -50.475 20.8231 0 
-435.249 -50.471 20.8636 0 
-434.848 -50.57 20.8999 0 
-434.928 -50.559 20.8028 0 
-434.766 -50.5621 20.5938 0 
-434.857 -50.6038 20.6238 0 
-434.843 -50.6181 20.7179 0 
-434.817 -50.7099 20.9187 0 
-434.875 -50.6465 20.9119 0 
-434.961 -50.7262 20.1177 0 
-435.006 -50.7013 20.2115 0 
-435.492 -50.486 20.4454 0 
-435.38 -50.4231 20.8188 0 
-435.392 -50.4655 20.7296 0 
-434.999 -50.6051 20.9993 0 
-434.835 -50.7942 20.2896 0 
-434.889 -50.7602 20.2076 0 
-435.163 -50.691 19.9486 0 
-435.129 -50.6757 20.3022 0 
-435.096 -50.5366 20.9657 0 
-434.684 -50.8361 20.5275 0 
-434.839 -50.5627 20.4127 0 
-434.726 -50.8076 20.2352 0 
-435.037 -50.6243 20.4021 0 
-435.045 -50.5357 20.8262 0 
-435.057 -50.5518 20.742 0 
-435.148 -50.5103 21.0028 0 
-435.07 -50.6281 20.5858 0 
-435.108 -50.6368 20.3229 0 
-435.158 -50.6195 20.2462 0 
-434.86 -50.5903 20.9082 0 
-435.009 -50.5755 20.2699 0 
-435.001 -50.5681 20.7391 0 
-435.047 -50.6748 20.2421 0 
-435.265 -50.7659 20.0031 0 
-435.243 -50.6448 20.0789 0 
-434.831 -50.5465 20.5966 0 
-435.477 -50.4699 20.4872 0 
-435.501 -50.4834 20.2987 0 
-435.6 -50.4623 20.4962 0 
-435.593 -50.4225 20.6697 0 
-434.827 -50.6257 21.0135 0 
-435.365 -50.4817 20.9288 0 
-435.519 -50.4527 20.47 0 
-435.388 -50.4871 20.556 0 
-435.482 -50.5546 20.2096 0 
-434.869 -50.7813 20.3563 0 
-434.852 -50.7041 20.4331 0 
-434.816 -50.6685 20.7627 0 
-435.314 -50.4003 20.9082 0 
-434.81 -50.8542 20.2007 0 
-434.809 -50.5803 20.349 0 
-434.773 -50.629 20.7343 0 
-434.889 -50.7948 20.1017 0 
-435.455 -50.453 20.7328 0 
-435.045 -50.585 20.6863 0 
-435.099 -50.5667 20.689 0 
-435.162 -50.6888 20.124 0 
-434.759 -50.68 20.8396 0 
-434.73 -51.0827 21.0154 0 
-434.676 -50.8088 20.3693 0 
-434.923 -50.6447 20.3936 0 
-434.704 -50.7058 20.8066 0 
-435.532 -50.4478 20.6388 0 
-434.766 -50.7219 20.8151 0 
-434.754 -50.7766 20.2745 0 
-435.086 -50.5164 20.917 0 
-435.206 -50.5835 20.4132 0 
-434.826 -50.7957 20.2666 0 
-435.309 -50.5745 20.2807 0 
-434.998 -50.7086 20.3853 0 
-435.571 -50.4206 20.6449 0 
-435.333 -50.6796 20.0222 0 
-435.235 -50.4684 20.9052 0 
-435.295 -50.5569 20.3697 0 
-435.261 -50.4727 20.7204 0 
-435.196 -50.5971 20.0959 0 
-435.335 -50.4883 20.6352 0 
-435.276 -50.5082 20.7087 0 
-435.248 -50.5657 20.4727 0 
-435.199 -50.5434 21.0371 0 
-435.064 -50.6967 20.2273 0 
-435.026 -50.5719 20.608 0 
-434.903 -50.6345 20.6502 0 
-435.355 -50.5561 20.4824 0 
-435.412 -50.5092 20.3961 0 
-435.146 -50.4778 20.9319 0 
-435.219 -50.5941 20.3054 0 
-434.887 -50.5922 20.834 0 
-434.947 -50.5864 20.2661 0 
-434.952 -50.5938 20.514 0 
-434.807 -50.6556 20.9385 0 
-434.851 -50.5987 20.6372 0 
-435.009 -50.5543 20.8784 0 
-435.013 -50.5376 20.72 0 
-435.105 -50.5781 20.9476 0 
-435.184 -50.6916 20.1543 0 
-435.232 -50.8857 20.008 0 
-435.104 -50.5702 20.3367 0 
-435.126 -50.5267 20.6489 0 
-434.952 -50.6158 20.3287 0 
-435.002 -50.5502 20.8035 0 
-435.182 -50.8564 19.9753 0 
-435.55 -50.4765 20.3961 0 
-434.866 -50.6821 20.2492 0 
-434.878 -50.7348 20.1018 0 
-434.84 -50.5911 20.7036 0 
-435.154 -50.5031 20.8099 0 
-435.177 -50.5169 20.6523 0 
-435.208 -50.5641 20.3455 0 
-435.183 -50.5332 20.5015 0 
-435.166 -50.5049 20.7295 0 
-435.221 -50.5801 20.269 0 
-434.912 -50.568 20.7154 0 
-435.462 -50.4804 20.55 0 
-435.566 -50.4784 20.7812 0 
-435.646 -50.4343 20.4357 0 
-435.426 -50.474 20.9443 0 
-435.469 -50.4747 20.5144 0 
-434.797 -50.6462 20.4726 0 
-434.81 -50.6707 20.3858 0 
-434.668 -50.7805 20.6242 0 
-434.881 -50.6817 20.3062 0 
-435.428 -50.5508 20.288 0 
-434.772 -50.9931 20.2533 0 
-434.823 -50.6849 20.3009 0 
-435.413 -50.4801 20.5096 0 
-434.689 -50.79 20.4624 0 
-435.167 -50.4939 20.7209 0 
-435.219 -50.5589 20.9704 0 
-435.356 -50.4696 20.7854 0 
-435.35 -50.5315 20.8841 0 
-435.391 -50.5132 20.4622 0 
-435.42 -50.5608 20.2988 0 
-435.272 -50.4642 20.6481 0 
-435.253 -50.606 20.2105 0 
-435.221 -50.5444 20.6112 0 
-435.189 -50.5453 20.9471 0 
-435.266 -50.6151 20.1264 0 
-435.307 -50.5941 20.2145 0 
-435.541 -50.5358 20.2124 0 
-435.517 -50.5011 20.2248 0 
-435.576 -50.4887 20.3057 0 
-435.022 -50.61 20.2636 0 
-435.524 -50.4768 20.8055 0 
-435.364 -50.4396 20.7889 0 
-435.207 -50.5306 21.0132 0 
-435.303 -50.6229 20.3118 0 
-435.549 -50.5243 20.2725 0 
-435.525 -50.4606 20.5178 0 
-435.537 -50.4698 20.43 0 
-435.596 -50.4912 20.4388 0 
-435.088 -50.675 20.128 0 
-435.134 -50.6456 20.1286 0 
-435.401 -50.529 20.3985 0 
-435.355 -50.4727 20.8325 0 
-435.182 -50.5173 20.8238 0 
-435.156 -50.6008 20.4322 0 
-435.23 -50.6138 20.1332 0 
-435.234 -50.8403 19.9783 0 
-434.666 -50.7562 20.7251 0 
-435.385 -50.6604 20.058 0 
-435.25 -50.759 19.9655 0 
-435.201 -50.6427 20.2095 0 
-435.262 -50.8856 19.8996 0 
-435.434 -50.4655 20.6211 0 
-435.448 -50.4293 20.8752 0 
-435.239 -50.8529 19.9268 0 
-434.854 -50.5799 20.8677 0 
-435.386 -50.5843 20.1624 0 
-435.634 -50.3869 20.4703 0 
-434.725 -51.0058 20.2834 0 
-435.244 -50.5308 21.0034 0 
-435.449 -50.6236 20.0731 0 
-435.394 -50.5448 20.5232 0 
-435.268 -50.5421 20.9719 0 
-435.246 -50.501 20.6077 0 
-435.297 -50.6013 20.1097 0 
-435.287 -50.598 20.1848 0 
-435.15 -50.6036 20.4105 0 
-434.879 -50.8105 20.1962 0 
-435.117 -50.5894 20.4666 0 
-435.208 -50.6497 20.1077 0 
-435.215 -50.6506 20.032 0 
-435.252 -50.7979 19.9037 0 
-435.058 -50.5901 20.5367 0 
-435.317 -50.5472 20.2573 0 
-435.605 -50.4989 20.2966 0 
-435.36 -50.5745 20.2177 0 
-435.409 -50.5864 20.0887 0 
-435.374 -50.552 20.4255 0 
-434.634 -50.7699 20.4259 0 
-435.272 -50.552 20.5406 0 
-435.286 -50.563 20.4584 0 
-435.376 -50.4873 20.9168 0 
-435.374 -50.4704 20.7668 0 
-434.682 -51.0782 20.7332 0 
-434.67 -50.8508 20.3858 0 
-435.269 -50.5617 20.2789 0 
-435.224 -50.4828 20.6468 0 
-435.595 -50.4335 20.6417 0 
-435.114 -50.5501 20.9577 0 
-435.482 -50.558 20.1474 0 
-435.443 -50.4998 20.5659 0 
-435.409 -50.4597 20.8823 0 
-435.401 -50.4853 20.5966 0 
-434.652 -50.8032 20.6929 0 
-435.297 -50.5709 20.3724 0 
-434.786 -50.7255 20.8649 0 
-434.847 -50.6434 20.7698 0 
-434.907 -50.7029 20.2873 0 
-434.919 -50.7608 20.1353 0 
-434.83 -50.709 20.4499 0 
-435.384 -50.5859 20.1307 0 
-434.91 -50.6086 20.85 0 
-435.558 -50.4477 20.2113 0 
-435.564 -50.4871 20.3678 0 
-435.581 -50.5232 20.2942 0 
-434.688 -50.8524 20.2786 0 
-435.093 -50.5791 20.666 0 
-435.108 -50.6077 20.5978 0 
-435.249 -50.8239 19.9149 0 
-435.154 -50.5902 20.4598 0 
-435.186 -50.8028 19.9822 0 
-435.556 -50.4247 20.491 0 
-435.024 -50.6565 20.4579 0 
-435.479 -50.5449 20.1402 0 
-435.196 -50.5657 20.599 0 
-435.199 -50.5756 20.4616 0 
-434.855 -50.7436 20.3793 0 
-434.864 -50.7757 20.2444 0 
-435.035 -50.6724 20.3853 0 
-435.067 -50.6345 20.4586 0 
-435.078 -50.6465 20.3855 0 
-434.688 -50.8236 20.3526 0 
-435.416 -50.4274 20.7924 0 
-435.482 -50.4388 20.719 0 
-435.463 -50.4612 20.8888 0 
-434.941 -50.5813 20.93 0 
-435.598 -50.4882 20.4554 0 
-435.389 -50.5728 20.3422 0 
-435.578 -50.4498 20.675 0 
-435.319 -50.4902 20.9896 0 
-435.539 -50.4551 20.7281 0 
-435.463 -50.4769 20.8266 0 
-435.602 -50.4704 20.6044 0 
-435.282 -50.4979 20.7555 0 
-435.438 -50.4738 20.5864 0 
-434.776 -50.8692 20.1899 0 
-434.635 -50.8634 20.6581 0 
-434.641 -50.8643 20.4999 0 
-434.657 -50.9189 20.427 0 
-435.463 -50.4947 20.2293 0 
-435.447 -50.5089 20.4932 0 
-435.261 -50.5149 20.6976 0 
-434.665 -50.7993 20.6071 0 
-434.665 -50.8745 20.6614 0 
-434.682 -50.8158 20.3385 0 
-434.748 -50.8908 20.2031 0 
-434.716 -50.7515 20.4141 0 
-435.593 -50.4751 20.6357 0 
-435.597 -50.5165 20.5741 0 
-434.696 -50.7625 20.4084 0 
-434.916 -50.646 20.3363 0 
-434.873 -50.6564 20.9554 0 
-434.957 -50.7583 20.0464 0 
-434.915 -50.822 20.0493 0 
-435.18 -50.8274 19.9428 0 
-435.055 -50.5563 20.8728 0 
-434.862 -50.6887 20.5324 0 
-434.884 -50.6568 20.9489 0 
-434.968 -50.6424 21.0276 0 
-435.013 -50.5751 20.8722 0 
-434.902 -50.7476 20.193 0 
-434.659 -50.7882 20.4932 0 
-435.166 -50.58 20.6801 0 
-435.138 -50.5394 20.8135 0 
-435.171 -50.5958 20.5465 0 
-434.93 -50.6115 20.7333 0 
-434.763 -50.7148 20.4131 0 
-435.602 -50.4761 20.6411 0 
-435.442 -50.5256 20.5247 0 
-435.573 -50.3806 20.6682 0 
-434.816 -50.6664 20.3302 0 
-435.635 -50.512 20.418 0 
-435.366 -50.4765 20.7437 0 
-435.321 -50.5101 21.0209 0 
-435.531 -50.4624 20.7049 0 
-435.391 -50.6205 20.0212 0 
-434.982 -50.5942 20.8064 0 
-435.009 -50.6292 20.5254 0 
-434.938 -50.7118 20.4585 0 
-435.464 -50.4961 20.3996 0 
-435.477 -50.5433 20.2504 0 
-435.469 -50.5185 20.1902 0 
-434.996 -50.6814 20.2471 0 
-435.545 -50.449 20.5954 0 
